ply
format ascii 1.0
element vertex 727
property float x
property float y
property float z
property uchar red
property uchar green
property uchar blue
end_header
-2.768516071836087 40.59506503914698 47.259697615632724 51 49 47
22.19549465302501 43.11440690316003 47.33494269603093 122 113 106
24.43454410899569 39.367835069894866 47.322315193802815 181 162 144
17.74637454780328 46.60701291923841 48.84290760353644 52 43 37
-4.602393288043857 38.38796947492799 44.513602872518355 131 122 114
24.802869368171642 24.642128121849815 42.72034799537523 143 136 131
12.948681095454818 47.72381706914937 49.2763479475252 121 107 92
1.286747745776346 34.31747258893667 50.356293932480376 225 210 184
24.07261938586672 28.257693417352446 32.5333583662517 28 30 27
21.315143003358557 35.70431400564302 33.812534559277104 137 122 108
16.278783537619113 50.82131323657771 44.83770366409332 48 59 51
22.104378126083777 26.530679848937766 41.810470715532084 187 175 160
3.383910453552114 38.30037990493177 48.257695196193644 137 124 116
8.344320755620146 47.29701339987876 54.0781598216065 25 21 18
18.687070425729104 32.976063845167076 36.211051831582026 251 242 223
2.7486515977329167 33.768415859401266 50.49835607813029 78 71 68
19.729830360799486 43.1096180302137 50.161137559716856 169 155 148
25.244135007262983 24.553167131140782 35.4016309213297 49 54 48
0.08141025946811253 27.941589306336198 53.03423068705265 29 26 24
12.209600079879648 51.62559061804191 47.7276972900996 90 73 62
1.9641575477733983 40.58308424663386 45.07276539508841 112 99 77
18.487315877700915 41.78084676634299 53.18732186949354 254 255 251
12.3962185001384 45.71725236979936 55.027696822028204 73 89 109
19.5430795257223 30.981636430779243 38.845162358037996 118 105 96
25.65694549120609 26.309669009098513 43.9937432688265 193 177 162
22.379065496644802 44.39855694813284 46.38543866857905 139 137 142
19.199232671151695 31.802567526295803 38.67535574928809 223 206 185
22.546956269930465 44.52412513745127 44.98553146057978 53 42 39
12.872574330957635 47.263295149178 53.255178921187785 71 62 58
3.7346596720438674 39.82810936557629 47.974212110783455 14 10 9
19.174966047750974 31.96141803821478 36.86980270500612 255 240 217
23.229294534950164 27.534003291189993 34.37162057865771 34 30 27
15.302553771274312 43.08050851667829 53.56605894102239 178 153 147
22.692582595921248 24.85401277762509 35.9861841551751 49 44 39
13.373039803367012 43.870797752460184 56.5415559652582 114 104 94
21.10104403218919 25.8931343833092 36.912246594792464 143 126 102
18.392926233581022 35.04572086381904 37.49046562563752 83 74 70
17.073456085486978 37.17786340060599 35.78147556097283 100 83 75
23.214140106922745 25.11275604069785 34.74513070520328 54 41 28
15.772803830822056 45.23687501340228 50.19792906725312 65 56 55
0.02795438020335849 38.74324018644764 43.464095294046516 61 49 37
7.842103451079487 49.1508094248913 52.69604628223488 44 34 25
-8.837599012928079 46.52960499636385 47.13471671349514 113 106 96
17.955676471673296 25.25066861018732 48.28417520336204 251 246 220
21.31271653156722 27.83429891788194 40.99915868779331 226 208 185
10.677925040157396 48.51095169980963 49.75779368890539 80 70 60
10.183748431744208 53.335420552960414 47.513431874153 64 42 33
0.6041863937008572 26.042957362287247 54.85131285884236 43 36 28
15.279835700430652 47.12206646862451 46.46462238603178 75 57 46
1.9723122732519827 23.97041067975409 55.750278921719364 109 108 100
19.94380200611353 35.45050677608398 56.017596087268956 76 69 61
-2.51867292175847 39.40797781469872 47.87511829957966 109 101 98
22.571449724424756 24.164113244890768 38.945305058266314 101 89 73
20.38111105463552 44.74425148343767 51.67665002500962 244 233 208
22.369332775006985 30.729909627868498 35.716639702539915 14 12 13
-5.07714667016126 38.52466422178977 52.823434239723326 150 153 154
12.734680957722258 46.690039786305384 53.8071138939813 143 136 129
1.8421342816782755 33.680807191048146 53.422779842958064 28 19 19
21.315143003358557 35.70431400564302 33.812534559277104 137 122 108
0.4556692983816192 24.58609056949029 55.48370437427846 144 138 123
19.51491234860022 46.85202750150438 44.51118805193154 132 123 113
0.8708359303580706 25.252541972045993 55.01023085507311 68 64 68
21.017226683595158 27.582368998974786 43.17102502347262 209 191 169
6.523960358249058 46.291688744777055 52.90611662140091 36 25 19
7.957926208822507 43.82006538544916 55.68458049058146 101 86 78
2.368980274900038 31.68580721726622 51.98463944662451 148 134 122
18.95781581804747 33.19697103148404 39.69108482980395 142 130 117
8.670880818115071 20.554370194151254 51.492618294962256 185 171 146
22.70660112300498 29.014624857397703 41.086876460699216 151 139 124
20.416403233744212 38.820189691516404 54.80626295630913 126 116 107
14.955286647068602 44.663330275427356 50.49608532492086 138 130 125
-0.6440888408296898 26.79945085789614 54.74480515064293 233 216 185
9.689604231930698 54.297340973849586 46.571145702678635 42 26 22
7.883166180168546 27.65966401505175 56.25235520339145 246 238 207
3.9659649518525693 28.782624592053104 54.39902354563942 241 226 203
22.690417195872417 41.96328994908301 48.560873190666904 198 209 218
-2.7282846530707006 31.638515862623333 50.54665934054705 27 25 22
23.95286092274436 38.53921445441778 46.55184625052286 252 236 213
3.807484461389272 26.397626097473722 55.79915326602474 252 246 232
16.262231731928523 45.69304173406814 50.31425126169591 49 41 39
25.853699152198143 39.97835698423025 25.634947211796437 44 40 39
23.6508674214432 37.66535474419412 46.048464268478924 140 132 127
12.602507197835983 27.624372350478684 53.443405618898495 242 228 200
7.677338762969651 49.13164693882245 51.79717318865722 73 54 40
9.857876530942496 52.00493677260503 49.63182054695164 28 24 26
18.227453606283003 42.60182377597654 54.7553169115848 255 251 249
21.421627578759704 35.56275406489057 34.24462198833317 119 101 87
1.4904973722362054 44.279153187558464 42.281753583478306 122 109 95
21.915255070807643 29.583566046232146 35.101965808648444 19 15 16
17.313850817354325 33.97419857466607 35.703069324683455 181 170 164
15.460532827426812 42.37265328750724 53.51536372145522 105 88 72
22.131022040791947 45.37083530319912 43.48790515469833 133 123 113
23.388995069956845 22.77663535490587 40.1585625332124 216 203 177
9.544375948460043 55.48732385847531 45.637187145552055 91 74 57
17.94495716532207 35.24117823576412 32.010740779062594 96 79 63
1.6371256315089155 40.33640251155593 44.34181159293438 87 73 62
4.381693583904574 28.34718369805662 54.37668918233767 130 116 103
24.471293051104915 24.51384721032901 35.713267429784935 68 71 62
22.412227922593825 26.797464218265343 35.58521644894232 87 76 75
11.351045884376687 45.10041952175075 59.32282054943934 126 119 115
-0.36487927693236116 25.945955758002388 55.551644786220244 140 127 117
4.839322624523507 26.35109716881007 55.77506622737748 138 129 112
-0.04618894497506963 27.590866305522244 53.474282707287905 249 244 225
10.467539834669623 51.66132911645121 47.69952197333689 111 98 80
18.238225621709866 32.890045776564875 35.587244686037955 203 191 179
0.1490952294756648 26.996624816781264 53.931089575248826 248 228 191
23.740862212102247 30.21420150820059 41.00146339785063 254 250 225
18.60068237398546 31.64550686722285 49.9181667205574 255 251 245
-1.1698246297329733 39.98910155230939 48.77945664542922 101 86 73
18.903465209558338 50.24278052972638 43.24356068126608 89 85 74
20.6444149873219 27.545389271583787 35.65951568898366 22 18 17
12.896474702863511 48.158725091394736 48.63692119172899 123 113 104
17.381180021223678 34.425931375503886 33.99953129376479 204 189 169
0.5964836955327409 36.36156891706658 47.075294415194044 117 105 94
5.9884232187352735 31.630056553745987 54.09293891904065 167 158 151
4.839322624523507 26.35109716881007 55.77506622737748 138 129 112
15.440828851913498 51.100932287235885 45.612781256555486 62 51 61
11.943303259129436 48.05430068100144 52.22093848871625 64 50 41
10.929665139871254 55.79583980583424 44.66864054639312 69 44 29
24.246112961995976 29.924278147638276 40.89594115342724 108 88 69
13.365071349853674 45.85070181559967 52.417027342568794 145 137 132
12.219908545947883 46.02040424107792 54.513851931894095 90 74 67
5.999967333022834 30.319159637810976 55.177350553142595 110 98 85
15.910009872386967 37.458559739110804 34.667311098075515 142 129 123
17.712116295726275 46.75826071675289 45.415705236285255 140 131 123
17.67958566658263 45.21704437552884 47.1745042035795 169 164 160
13.123570005927341 52.43724824937573 36.21060320621881 42 32 23
16.460585668183032 36.31593351791635 31.735850934956684 249 228 204
17.416401536855183 43.80258088757032 50.09130865689763 251 245 236
6.467415763824209 20.53232908506411 52.51648465875734 169 151 131
23.87244579633166 22.567011518450855 37.79707669302725 212 200 174
-1.7028450303069036 30.987452166968453 50.137163100085914 213 201 177
19.14267280364381 39.939731775030076 57.1666614346003 68 61 55
21.21538672246835 28.0309100593745 35.01148641110789 136 130 130
20.31989474240925 46.10850379317264 43.26999265556163 77 64 51
16.87542932278806 34.75759927396143 34.05153253780138 252 247 228
11.823770878772201 44.81251682678429 57.514816317218234 135 127 125
24.597430564771507 26.56296712377529 43.67344230031403 228 211 185
25.408338507873083 40.408533986263265 27.51910497464445 254 229 185
20.870304779337737 31.78978928813192 40.21374135188566 104 90 87
12.043853612206807 47.120754341186775 51.50074311225004 152 144 137
-4.589032129040956 36.0186963993034 46.89501405705005 86 77 72
5.633669356669687 42.92599650969807 50.02815789190399 111 90 69
22.631159448573637 23.58462462166098 39.383101695521084 74 61 53
16.121426994567507 35.77448239534707 33.927699207612825 72 49 30
19.617476146755237 31.288521329275735 37.50499415474342 241 226 206
16.140923879239672 37.29552678228302 35.31237735120083 72 56 41
13.84676342616032 47.04099393177521 51.59478973645232 62 50 44
25.331799883050223 22.340603355890252 37.72519554066713 141 140 127
20.214175619556205 26.48048494143478 40.86138674905302 162 146 132
19.738294820897167 31.792245257212 37.45921512894342 243 228 206
15.9523353445397 42.202095463445765 54.082389558947504 223 207 192
21.16892168236143 39.39224828103326 55.90914418665262 99 91 77
-1.164434732627651 39.17765967299306 47.76256239813874 55 44 38
5.1941489295605106 35.98869039308984 53.63531169946916 95 83 77
7.469365452909012 45.28389013133371 54.369149586889584 89 79 70
0.08183824100197244 37.73133833639837 48.04672572227691 38 24 23
21.602620959563765 25.92338426356633 36.08405755302362 19 17 19
16.36127030652415 43.78368568246049 51.12601266127424 163 148 141
5.141601018582312 42.45503523786135 52.52949318664024 20 18 19
22.681288975731942 43.129670003856745 44.120766192146164 30 24 21
22.704768737951735 24.3767271595048 43.72605021003816 196 185 166
14.953821461421569 47.678781784309884 33.88789198746509 58 45 36
24.43454410899569 39.367835069894866 47.322315193802815 181 162 144
8.110775064595781 55.15307952053262 47.92440443648894 34 30 19
23.917829562395262 23.20193718234005 43.16314222736115 137 134 127
23.381323613979724 23.56739473277416 39.47507557992202 250 239 215
6.950977147511275 29.736737717641372 56.04600758256194 20 17 16
23.453077361541197 31.25256849877333 29.9270306220276 246 253 246
-0.045849311370948116 24.485231275648726 55.9308774639908 110 94 69
22.93814277188206 27.865020155678703 46.572497179391085 45 35 34
22.847413963429222 25.068121847885912 34.64493101346094 240 219 181
18.60301470659758 44.997170014831156 48.217754189914416 124 117 121
12.147126034021507 47.59377276232208 52.69578594984052 45 39 35
19.3071786705969 40.25681933447581 29.04832818012664 221 204 189
14.515040365244257 43.35017543579683 57.19552203077511 143 133 131
24.549393649589554 22.26911280933927 38.969693925564414 158 146 127
14.503264427485075 51.243313017726344 45.91347898084326 118 102 71
1.7956687314403308 40.42600496625006 44.64570050126391 116 101 85
18.483553105820057 38.617040018569924 29.487381119067432 61 52 46
18.069911158589296 33.453575368679175 36.430581633094306 64 54 49
-1.1253114998793372 29.517992885227088 49.99188068162453 112 108 110
24.9176553540228 28.230256052143396 31.950007257912922 83 84 73
8.901542501741455 55.252007366702166 47.27903354215625 52 46 40
23.449946635132296 30.064892684292623 30.137347921020528 254 254 255
19.199287449493035 44.14021782565242 48.597200415757655 133 126 120
22.727203804520915 24.575148893176795 35.144408273322135 41 27 26
24.557925443552758 29.252027169842403 41.25698521649835 120 108 94
13.168345625341992 51.51892073253986 46.602480094199116 98 97 111
14.857840754526679 36.61752415084352 60.212177010896184 36 32 35
18.707415353351358 37.26212491682353 57.81960832990078 120 113 105
11.560151182133147 48.09668404194536 48.86906549250328 92 73 61
11.446201125018803 46.54639260849962 54.27352227593036 95 78 64
-0.7389134511782103 38.741184641791754 50.17109042116047 125 115 113
9.197757600271016 55.21454517397715 45.943853456601495 19 19 15
11.136940242034651 46.76892561851506 55.862459010751806 65 82 91
8.800560047012315 49.062823680485465 51.47024680502522 124 108 94
23.7439582305746 29.652866133473438 30.72366255476228 13 18 14
1.451222869180134 35.86489407509436 47.31826281978127 40 37 36
8.548755709588464 53.62944519036265 48.45278128001851 60 47 38
-0.5596469909431893 28.460115906200233 52.43724436612461 251 240 216
23.123701123934442 25.53619855286186 39.81492340594245 93 80 74
8.666805799683768 48.08056860996662 53.57071146650746 122 108 95
1.3356739875969026 35.15204326313076 52.02236704920781 205 188 167
24.191872315200776 25.952520094424216 32.9196787480957 149 140 131
0.042939213448332 37.37337825712181 44.429625678140496 255 254 247
18.23975222619766 42.01123394213104 50.2427521383686 254 250 242
14.687544125503631 53.5466055815774 43.53479897651039 49 33 34
23.16394425104555 31.878643914629198 38.48879854530499 220 203 177
20.640004960883225 36.20174396526016 41.218567692269936 109 95 88
16.70001307617158 35.44810026388954 33.9622587452906 95 77 65
5.9884232187352735 31.630056553745987 54.09293891904065 167 158 151
-2.29560775113693 30.26019720194874 51.04174951184756 212 217 198
22.623448334147188 30.24953049296719 31.602564864089157 213 234 206
24.06540326537885 22.190611087678864 38.03024553054069 121 104 93
19.98335684131208 29.419029006242063 38.334208114381106 81 67 64
23.889515790350995 29.035752170113387 47.39594199133396 80 70 69
15.65342233537445 43.076050457546316 52.92837865607873 157 139 128
-0.5350650144677521 29.24105092905129 51.41421215431327 49 36 26
23.520065650714923 42.81059764643692 50.33656825876546 255 255 251
20.738265273233665 25.52045165491714 47.25665073328075 249 244 219
17.42100413738746 42.69149769919463 47.942853873835894 105 96 91
18.74150318239752 47.19852680802839 44.54367652521088 87 67 57
0.8649560685282631 37.079739879196914 45.47013609385646 62 56 49
0.5212526630800671 36.535452657219764 50.52190763819249 218 199 170
15.654365147150262 41.59156189279159 31.98125456563557 122 106 93
24.10014401859326 23.819360874289647 38.29005665466046 238 224 197
25.45482798488859 22.170967407159118 37.77022837338988 248 236 206
17.74579473379495 42.51678695935668 50.08590710782677 168 156 142
1.9402558724143164 32.75543897451286 50.536301637377115 224 209 190
22.650291778897355 24.883392262951308 35.18490024410651 147 125 107
24.81863153155636 38.525386296335576 28.387230673207373 235 221 207
9.92156922451038 18.954383149467933 50.33587172836909 203 186 160
17.663930165520004 33.32270434064534 35.439071653333 70 55 51
15.344044223540157 54.21007924743068 42.62105823140051 73 77 76
16.851886183378973 27.525969506246387 50.407795957867506 96 101 104
0.7175158139376142 37.9092664287625 42.9995134696509 123 110 91
16.158435405468822 47.34189356862106 46.509139871943226 129 116 108
-4.268729215629345 36.18306055230742 46.314570513808015 123 115 108
-0.5691062307818859 37.498556898783946 44.687433371645255 254 255 242
7.512485381245259 28.312720793990664 56.57020259414313 248 241 213
15.424779699434941 52.94659472111613 43.31140694021501 71 52 51
6.919004989114305 31.38828975218147 54.243215814941294 11 11 13
8.528831425660053 30.303549734456382 57.404272218781536 45 40 37
2.441990684775851 25.684561941504487 56.38590179115975 86 79 61
9.400824815368454 29.348246628081174 56.524398429647704 249 235 201
9.791511817546226 55.627275259387005 45.00495094386567 39 22 14
10.199343209122256 53.87923190853507 47.26666442521515 109 91 69
25.01783375440441 21.445319432615264 44.87941934487772 222 207 186
13.590278381120989 43.67106397813637 54.31027550749544 111 99 96
19.83058911062941 39.79134480460995 58.916135179585766 149 142 132
13.371909328005879 54.38788919520965 36.770544722728125 90 70 61
24.251425624877083 21.61611701303462 39.20776110545619 18 16 17
-1.4113256192592438 38.11131694961126 45.022337367025436 34 26 18
-1.166639567840565 39.415790463180834 49.17488119245687 121 109 98
25.045062163596455 24.872784320688133 35.01756810449386 125 106 88
13.35297931241886 54.571257817114194 43.80310657790941 93 68 38
8.19895111279227 51.59952383522837 50.422198355512464 24 23 22
1.9133293603027848 39.314754724999524 43.455642575284905 128 118 102
21.709463900067462 30.89067059250142 39.31894753436109 81 71 63
25.694791292029723 38.19031947471398 28.9410584569903 241 234 214
15.749630224024811 50.914940528325445 44.28904300753741 95 98 107
21.201164205950345 48.03122725987752 42.475466022447236 28 26 29
20.08444533323787 38.08303427908656 30.62632271059321 176 162 153
20.921239303600338 35.48873977236412 34.84891935194671 77 66 54
24.18871667156532 29.837355960031594 41.20022917429246 255 249 226
13.966487344639336 44.57167661007236 55.07831763224474 111 102 97
12.083515866280337 45.6817164254509 55.50536290447951 118 107 104
0.6254584059837232 36.662155661348386 45.04924923949666 43 36 35
20.912865119222207 44.40781170594237 47.96926031268488 150 140 138
24.632708735270455 28.88977606726876 31.498212877247312 85 89 83
14.249871495555901 44.406759299998576 57.45694014913842 152 143 134
17.482989543642567 31.13674535784676 48.64278757502318 229 222 212
26.50953889370063 36.62152629469376 53.34247674321236 103 93 84
-1.218922840120419 38.619502961840105 44.60391338616634 137 126 109
16.14642935732425 37.61080797017795 35.4899887343872 90 75 60
12.079125359227216 57.418366071528986 41.12568997360852 16 12 11
18.897204583459256 52.33917554774521 40.58889162964787 59 58 50
14.650376734791529 51.62351445492813 45.41479491295782 86 78 60
8.342049494565149 47.29327818895004 54.08149236300146 36 26 23
16.91598806777593 46.39874248707576 50.742139795105096 127 119 117
21.86987313661652 29.319977520345677 43.35444631324013 202 185 160
3.182653771593997 38.91468434211857 47.3114991636364 18 14 16
23.858649904523297 28.74622655648311 32.410344844102646 24 28 29
1.695319285500988 34.6139334992219 52.21064378403901 88 72 59
23.013848754946004 23.961161469113975 36.1400933606314 59 50 44
17.612396153152858 53.742626060395516 39.8984326700237 56 56 56
18.74150318239752 47.19852680802839 44.54367652521088 87 67 57
17.602905878459957 34.341937667783505 33.919675339036665 180 165 147
11.911081055616142 52.93977693380602 46.86237446022959 92 65 54
13.187487548164686 45.01217748861359 55.278655077043155 130 120 111
21.282398677072802 27.815114498180765 43.78469670599328 144 130 117
7.4294664191288735 52.44742376408365 37.28430825028857 33 33 41
18.43346397264492 44.55356041391144 47.279503757932574 53 42 38
23.576125061742907 23.2089180842284 37.54147348122117 87 73 64
13.143288869778036 46.085437393786556 51.00788170323454 51 42 37
13.344221522340375 54.68764339263839 42.75569066205789 36 23 14
16.877549466411672 35.58358196919117 33.592349581851366 157 148 141
26.351985950410597 33.1474844385097 50.22841793447947 251 243 226
22.747456950779373 35.914077509094895 54.47728896527784 99 98 89
21.988581054912355 28.461030989591432 37.050365782363954 113 107 109
19.698052897534676 48.21508981983224 37.903221879540396 109 98 93
21.395028983402042 40.49151156113141 49.84709950377305 250 250 239
-1.1477692126858339 29.574754842493764 50.25464638796219 20 16 15
23.858649904523297 28.74622655648311 32.410344844102646 24 28 29
24.223553042668943 41.2785871897872 48.24039675787173 127 112 103
4.02854721874245 50.7460572556431 46.92065432220046 54 44 39
7.560976956589703 48.82555478028989 51.0984036310148 72 57 42
19.262048034419944 41.01870365498413 50.029487161089264 145 127 113
22.597331530578565 24.452635811785353 35.50329527550225 39 30 29
22.498779216347216 26.50145317091495 46.447602192585826 208 196 177
9.086043028400695 39.564839276527664 57.27833034338334 118 108 98
21.660401240315846 33.94744126678393 35.93967739695539 141 126 113
8.96961665414387 28.645199762505012 55.927529259666244 245 232 199
15.59625792956215 46.23314184554329 49.46211854070963 54 43 37
21.697600472250077 41.83188061569948 50.196469564939385 253 255 245
25.941238309559445 21.925316820934388 37.57652307083815 236 221 192
20.58613953445913 35.90544492421926 34.34772251285231 80 68 61
14.277086552623523 53.35677021541102 44.14244085295823 111 84 53
21.988581054912355 28.461030989591432 37.050365782363954 113 107 109
9.319930309415664 48.13843910567424 55.0125231000804 96 91 87
12.057266766351411 52.65009537994109 35.79307670166562 92 78 65
18.493481622882236 33.4023712666721 34.37119084797018 215 202 194
18.688647262969152 42.43296925256261 50.80296161252054 161 143 133
-3.1565648520782195 29.165562529719537 50.90222645301006 192 166 141
23.136253600838046 44.00522885594991 45.15420409473646 117 111 110
19.543754078447424 40.186895837658724 54.41862414843458 166 171 174
-0.5489492730027029 38.489608664841874 48.25589811170995 244 227 202
8.670241647260946 54.21848025310902 44.474467232176764 63 61 57
-2.4950766069464954 29.651217993163456 51.67282810718415 102 80 57
22.442773618695135 51.681904309254676 42.03421416786052 45 43 44
22.49947447145004 25.429933950488874 43.25825734700355 225 210 187
4.611607427815963 41.628639761039885 49.07388285974175 31 24 24
18.449977828509528 34.496592331352176 37.79802852306254 122 114 111
16.254734046664687 41.97445816093562 53.28012310018046 131 114 103
0.4440553323188025 36.12551496003123 51.042461177586645 74 61 54
16.91598806777593 46.39874248707576 50.742139795105096 127 119 117
12.269999455302873 46.26282027172117 54.61744641932137 90 74 67
14.764623307694151 41.98670428838297 59.4876117480663 32 28 28
16.443726557700018 49.41404119054656 35.318189012981094 113 97 83
17.637458507841924 47.36408816551854 36.1232998226689 113 104 98
14.659396442928287 41.91455424239888 57.4314096890172 106 106 106
23.465946735644987 28.939661361318016 31.822705679920517 51 56 54
12.638420885384571 43.92860972996384 57.15084602593512 139 130 130
20.18153771237493 44.68526717193639 47.55950304959136 62 52 50
21.2511833186891 34.429420143161295 36.464642956353075 92 80 67
-1.158171911314674 28.18212506394627 53.465934446230754 232 216 180
14.781020841816224 47.484865050354436 47.03449095596943 100 82 68
14.002371247792055 47.73320283908026 47.58079393549074 103 92 81
24.50699065239409 39.96759116459011 48.10257871921597 254 255 246
22.132939217822905 32.824410894199715 36.893540779820924 237 218 188
19.5430795257223 30.981636430779243 38.845162358037996 118 105 96
2.3450824465929245 48.286747657850555 42.113746660534254 57 45 34
17.90081926461842 34.30862652760272 36.0479796063444 73 55 53
24.011788160808553 29.621233266611004 41.41353920641415 253 242 216
0.15479379927886033 43.82485748397868 42.557253858000465 35 31 30
21.653585310752078 34.45921878534061 36.04659186957348 126 117 115
3.4077922962619804 41.26044961847369 47.271336212752374 101 83 63
1.0764943673522607 39.86602059823034 43.948610973646815 116 101 82
23.03248883018225 25.565187661713804 36.689419038691874 90 72 52
13.228840461607886 45.16670780707591 53.33687285516058 98 84 76
8.137155927427232 49.65572860344348 51.04489146493174 111 93 82
18.74692864541841 49.36319534918057 37.08946751887906 63 50 41
7.106149461343847 30.562723029804342 55.47993023617801 17 15 16
-2.3820565321604983 37.60126669626157 48.50496467090068 94 79 72
10.738638170111383 48.67097265344859 53.526792039486004 47 34 25
22.587565962768437 25.208026431149587 37.46125161038273 252 245 219
19.590168849945005 37.59015851016838 31.902184153288207 252 237 216
16.7684243066617 37.26030165988528 35.023021937093496 85 68 57
19.378351669936315 33.695119132549344 37.959303833192344 93 82 78
16.562189405791916 43.90838710809229 50.66487423981389 254 248 236
17.34898279066236 43.04571587054619 55.76179601595701 255 255 253
12.734680957722258 46.690039786305384 53.8071138939813 143 136 129
15.090249260844127 50.81657739022241 45.9405832281773 69 52 58
12.19175070011999 41.558584478812485 60.09240298772657 122 116 112
21.602620959563765 25.92338426356633 36.08405755302362 19 17 19
25.429641405465997 36.52476694390771 52.093295718298656 104 96 85
4.319187011169462 41.41189573142181 48.354423714201985 51 40 35
25.032610383804656 24.21987903878678 35.6767253870703 155 177 156
4.477525928726393 32.39597199695582 52.96524174061742 85 75 73
17.938833582717884 29.485338191673645 51.09637298260109 252 250 241
6.333166744384839 30.595286509557162 55.68799739203129 50 42 39
8.995247896033526 48.879977466978886 50.787426826703815 48 36 24
25.54303395316459 32.81247192272749 52.39484972602014 249 235 208
22.252059376987837 26.49710006295793 47.15049864261756 113 103 92
22.55394387914152 26.075602180093426 46.312753162369994 235 225 207
18.706037296467805 41.86279207796434 51.189853784062585 216 203 187
9.730867194716858 53.38651569741563 47.82182044390364 94 65 41
15.279835700430652 47.12206646862451 46.46462238603178 75 57 46
17.728476786702924 51.06728261987989 43.11080854157035 137 129 116
0.042939213448332 37.37337825712181 44.429625678140496 255 254 247
7.218460748838833 52.575542600102544 37.95328248499916 49 36 25
16.986693111373224 43.45113849744314 50.59903618603675 161 143 131
22.80542445214889 30.22549934360363 40.362149523579426 183 167 152
9.932831858755868 52.47246753206604 49.495231916543936 34 30 31
18.23975222619766 42.01123394213104 50.2427521383686 254 250 242
24.317997339366435 40.81420043754288 46.77130453968527 126 114 108
15.525952198252627 47.36448651160145 46.039341055113496 162 152 143
4.613754050874531 27.134416770852116 55.33539759837811 247 244 221
23.325276535947044 40.579267290557716 49.63632477456186 195 179 164
15.516574542493908 47.264398847648344 46.4980804998089 118 106 96
11.762546054496244 52.93624060633069 46.5710448159999 97 72 62
3.4989556138430156 42.957980705564566 47.35634127860849 79 58 48
22.34488417238043 25.487319232811533 37.860358623226055 254 250 224
18.57910653373388 33.18082730273575 34.960912819750874 32 22 21
1.398205740161893 40.1788598278403 44.18256372747952 117 107 91
9.074981321655976 53.77018222537643 48.15402153724491 44 31 23
16.458840116955496 46.64761341706453 45.2760472330717 156 146 136
18.073993133882844 35.03571146684138 32.96869017068158 33 24 22
4.164340141628801 26.495476682321 56.87820418187521 254 255 231
15.254957593708998 51.24421674303226 45.29256135044143 47 38 40
1.5794588178640132 33.13508809792415 50.23631025983946 119 106 98
22.069507863484755 28.89544177886883 43.743253493009284 209 191 169
16.883680934383058 47.328573876864006 51.028814428951264 49 41 39
15.607825410666086 41.61237081380002 32.446433499602136 239 226 207
22.023241726591845 31.381665773356882 38.97145202454276 203 187 169
2.394688842139634 31.974017681152503 51.076249291291674 218 203 183
18.419076215014655 40.623643704640635 54.23707851845449 37 28 31
15.549713235635123 52.22391854564643 43.755662309868505 84 87 94
18.410752855813485 33.491462089345525 34.69272078224896 46 31 24
20.84996109581083 45.43417124439364 46.26179305242408 58 48 39
-0.41780618087646926 28.997482294575864 51.850684906821485 44 35 27
15.657361256084323 47.04758715909814 46.28584700030326 83 65 51
25.331799880488127 22.34060335946191 37.725195538421616 141 140 127
-0.17408876819250466 37.985242560748794 45.13605757005776 221 211 191
16.888513690368693 43.039887053884186 52.42640520186362 255 255 255
20.061912618757862 30.551271726766785 37.936741615151455 97 81 81
0.6840224967432601 36.38191544214857 46.87380617010118 174 165 154
6.2124496759340895 53.265393560136715 48.61434314781386 76 65 59
8.343475483246712 48.56076643001467 52.69779414753358 120 108 94
24.814063721129273 41.98269035272042 48.209538015789036 156 147 142
17.333905062456378 42.242296393911005 54.26202641774887 251 254 252
12.850448681112168 52.71427453963259 44.161768823227916 42 28 29
-0.06893288986011539 26.565476610911055 54.98679446675747 210 197 177
21.692878819250787 42.38739433252262 49.23049008382328 249 244 226
20.044651070293824 43.12915464764334 51.37119214471564 251 252 243
14.585965838185796 51.104163955417874 46.232191408431724 72 56 51
18.384265325847657 32.42940197246764 36.10011242952408 251 242 223
5.629474404559383 26.431658831646608 54.99847672640086 254 251 244
17.775407020012825 43.24595131876719 54.814794804443856 251 254 252
21.257168759498867 26.543020673496322 44.24328343390244 219 204 187
11.4991336195673 45.70340210749438 55.84896556815376 110 103 96
18.340986240799186 41.73416498839348 49.888977603696546 206 187 172
20.48174416014592 41.917794503764675 52.64972604447023 254 255 250
21.092281457455307 49.93113759037659 40.620814027462686 32 28 25
21.203725915203574 34.59008324913901 33.53434779105363 194 176 154
23.460479210328185 29.525078228827212 49.14423843050133 53 51 52
-1.902149955868858 31.982174032886757 49.57347722512701 76 72 69
10.377005792424498 53.1321912926847 47.67633066905682 114 97 79
23.85953078359822 41.064506964338044 48.84970222625261 255 255 253
21.903853941816323 24.422034823187083 45.23517018863008 113 100 83
5.813592211910578 25.827983427292395 56.25339356995437 249 245 229
12.16221870464604 52.88028949274736 46.48312658253382 43 34 37
1.305996432370409 40.4035514443388 45.05508662907479 71 59 47
19.788468487331258 43.305464596458584 48.68899366838827 254 255 249
24.560920596436006 31.361191162819814 29.001745007598345 239 252 245
3.574055716070914 49.037600540932836 44.635422268095624 106 90 73
24.54742250712532 28.94511281261865 31.191649145046192 67 73 68
8.343475483246712 48.56076643001467 52.69779414753358 120 108 94
8.372787700086496 49.33517786093862 50.90480435250485 117 105 93
0.36819213542069523 27.417981840632866 53.745685872072286 37 27 22
11.561723198914551 46.75685803446753 55.172944916994055 69 60 53
21.172984657272675 27.097355543545284 43.53104797031333 207 191 168
11.583575141801292 45.436175699322895 56.8999395840204 70 60 66
22.148158405743754 26.31660296109155 35.73623645403466 204 212 201
22.970972039757132 25.574581886160274 46.56148222943413 54 37 26
10.5956826983037 55.20702902898385 38.293432587481206 54 41 32
16.14642935732425 37.61080797017795 35.4899887343872 90 75 60
10.35079470432944 48.182329245375556 51.86075101362837 98 81 74
20.648612555889002 36.00761454837114 34.13846422282391 192 175 155
22.6094173805912 30.43051099610662 31.15003885832465 101 122 113
25.000107441154658 42.37451624712462 25.717063477937504 253 242 218
23.66846161731882 27.9045140296356 32.815474142798315 230 254 249
14.021320240169395 53.371882253820026 41.96200865592825 69 67 68
25.09462146095562 40.65788884597467 47.42143645731256 239 225 206
21.651067441362496 30.40855751409207 32.57397244733349 84 75 72
-0.23769267506015493 38.73821344954895 44.0177871279595 150 137 123
-1.4694087854037952 29.740882977576312 51.044742184525205 23 15 12
-0.6953153095471208 44.25364521118383 42.57211970482183 58 50 44
0.269139983623631 36.12626905081437 45.85507163710203 66 49 41
0.8713539001614147 35.157997740200855 51.82664889251038 69 61 59
4.080655325378119 34.92919022057959 50.96060321094949 50 40 41
22.383600306029543 33.00070676520836 36.047434796261534 160 143 133
1.051900362475796 33.851317295415384 53.34691692933165 20 16 15
24.520394201363935 25.256490548287587 34.263639404859234 45 28 18
18.948817362905494 36.814255266764405 57.2303058292898 120 113 106
19.52115357190023 31.677863483634052 40.265453470316174 170 152 133
20.982120386032708 27.87207082634296 35.37702611312927 69 63 65
9.225196326774935 48.9238632434376 50.1587180909829 126 116 103
22.929336852646596 43.196651815035175 50.430564694530865 220 195 171
22.519384232627555 41.42564977034926 43.966526091950236 123 109 101
0.1966121250694553 37.517077672971894 43.06259227781707 69 55 42
15.254957593708998 51.24421674303226 45.29256135044143 47 38 40
23.922240253640915 27.39412380988466 33.194053929102566 109 110 105
14.129970632333874 44.267336164596806 55.51465146967561 109 100 95
19.416507489692034 42.449511480525445 39.78481579426159 70 52 41
24.122623951898124 22.796345248832495 38.2041027614016 84 71 63
2.8053668797155837 26.39874521115735 56.19475517627283 145 136 121
15.835859489593874 37.985766893286645 30.994959056602564 50 60 52
11.407814642684727 51.613998222823874 47.92229834374033 88 79 72
11.195033883881504 53.446207145834656 46.743424320015464 118 103 84
23.81683489753444 25.186355112117077 34.625990798924775 72 54 34
11.359868682179956 45.1610785782536 57.76222507827784 71 58 50
11.531269370001855 52.08886674019365 48.057098247131144 88 79 72
21.70803931778423 34.308554377644946 34.7922945885047 140 125 116
16.12605837738949 45.54341175080476 49.60735250955529 97 88 82
25.21351337063516 37.90301620140627 51.9421417254889 133 135 129
10.970279618918164 52.97332117503772 47.63143794087297 125 113 96
0.05025510016502652 37.72018464632876 50.3331750754988 94 81 75
-7.513088545229772 44.05802708300786 48.17581823412372 241 226 203
-2.968758450780348 34.61286461820947 47.615708565728994 35 30 31
16.764736008088335 54.82000573755754 40.14292330753235 57 57 53
-0.686763608462243 31.920651492498596 50.89506871826446 73 64 62
20.93041305743868 46.16448795919719 43.29916778785416 125 111 101
22.188557867689973 41.730622079205936 48.27852434680982 108 107 116
8.170477747103876 19.293227248838413 51.253421959197844 231 214 184
22.881284200814335 25.885204348657524 46.382995315285775 115 101 85
-0.38350894797533697 28.18590438243363 53.003631896804386 248 234 207
9.77050390645954 52.55855468215298 49.223063310743214 86 65 40
4.985356759354488 28.978696022164005 54.57147906805883 34 30 31
6.013049435227125 28.34814240620235 55.34321227527592 117 102 91
14.748248031429977 45.89658825706244 52.32501936441311 162 152 150
17.11272008032975 52.13685255359574 42.80130600538092 125 115 90
11.936530193058172 47.91116898716261 50.1876388596197 158 149 140
19.085697048415977 31.910806149925047 37.361571393357934 155 137 123
19.204787242935467 49.42867119010074 37.670185125985675 111 100 96
20.970600266063748 34.40787831183489 36.177125549577134 115 107 105
17.520749639132625 29.92122772211024 50.74584103878673 177 169 158
22.979471208353004 29.922017062712175 30.65585343524565 224 251 245
1.0508053576925853 34.725215447879116 48.10551361457984 240 225 204
25.45821835321595 25.447186235455447 43.90636853107702 69 59 57
24.105433277709047 37.35966921168038 50.88363054025639 27 22 26
2.9698113768298398 49.453081568274925 44.0482402917265 42 32 27
17.62629170997068 52.11526984604325 42.23054072863334 89 78 55
22.100360923668568 25.219764027929653 44.12239748269271 29 24 21
22.533176495438262 42.5323548095623 51.3661216714515 130 113 98
17.78952819764596 33.3908398488817 35.249037403230766 177 164 155
19.09959137965086 33.54217573284763 35.03711801047269 51 44 42
17.991232132327102 33.137732151349816 35.69944055976097 88 76 70
2.0761752339079846 35.55119095299049 48.51775724094942 22 20 21
21.898693481284628 33.44220097512649 34.72437873126576 177 161 146
17.92380837424202 34.12510426983577 48.67171234991408 255 255 255
0.8708359303580706 25.252541972045993 55.01023085507311 68 64 68
6.7418765921745285 18.60025433495817 51.536594783492305 242 229 201
8.246691707291541 51.83267022533504 49.36977926872447 16 14 19
6.681149556161133 53.581494050272596 40.14374430817183 39 28 22
-1.2565538823829365 37.88507673269266 44.34360947802032 137 126 109
20.10381069041995 36.00514892665871 54.99316190074228 115 108 100
22.986728802553806 43.45574118032263 51.16574374195386 250 250 239
23.052038317873443 41.91185327004917 51.482778806523214 254 255 254
20.26355045601545 33.27050591874671 40.011905904599395 229 208 182
22.05277042791877 34.349013382432354 35.70138625574283 253 251 238
1.9954934873087267 40.16379188794477 45.40559250468617 69 55 40
16.520728395171698 37.26251291687227 35.29534516375806 123 107 92
18.263953225500416 52.038885797723914 42.54676272301935 116 105 85
14.920933647268207 35.7599029298752 52.80083204424663 253 253 245
17.13965261912319 53.842796522198434 40.26319126454747 23 15 16
23.150606404232118 24.200684242650542 35.21257053777918 159 147 133
19.39961014611498 41.07427606925328 54.270132075756145 87 90 99
12.790135412142499 52.09159695840052 46.544009255443314 97 97 103
20.545433474463923 46.391100327451646 46.23204402782323 151 143 130
24.03120929089527 25.041706594459445 34.02574489121628 232 218 195
18.668588804591312 44.02922868740872 51.35984853625826 149 138 129
24.114389500688773 29.13353271742717 41.39711499727 254 246 218
-4.86146161962595 36.26511413300539 46.97385583035806 86 82 74
21.01966955639312 26.1475937249085 36.57597015822807 29 23 23
8.04671389707742 53.887341470488565 48.8108365153074 21 18 19
18.283324720599985 35.25433456587018 36.896476633165996 39 34 32
16.05416307365588 46.94196462314206 45.95299241755962 88 67 53
21.718539889414014 26.859578897546513 35.47280953319482 204 193 175
4.38379468694307 40.15399554858906 49.44079203550792 44 34 35
19.88808267376138 37.901621698391374 30.698818292930206 202 190 179
25.89764325222857 38.55463471591187 27.922991278746732 114 102 93
5.146938560483728 32.78663008407897 53.32952532629062 38 33 32
3.61045814193104 29.750537560421222 54.122009370610236 253 241 217
0.8252898006894162 39.08619983913008 44.59101848285045 131 117 100
22.12380079057689 42.520228329972866 42.92837485836979 44 34 32
18.801975521767716 51.519246700638796 41.8051345918834 33 19 23
10.704689357413939 44.492635013213274 58.32302711188164 80 68 65
22.92257447812037 27.41506578358469 47.186982791440116 187 180 167
7.80455870691861 52.99660659476655 50.29616452213816 63 60 56
9.892623007360905 55.13055486506941 46.27165829616469 97 79 55
21.91943087616 44.01417368067176 46.630386682731086 122 120 118
6.672633011122097 47.222662422660605 49.991220649374334 43 27 19
1.4595610220945074 39.46153692816558 43.040321688101656 77 65 50
4.179341380788233 51.70142382215262 46.161652196366994 101 87 74
21.427990778446013 27.603461224767035 35.44707186099157 49 39 36
19.06796457727301 43.672588372511825 47.4094956922967 121 113 110
1.1993262320608196 25.15576243005091 54.77051086269111 190 174 141
22.139572761423484 44.957777360773505 46.17670811553286 132 123 124
23.54923163680149 41.821833227325705 48.059603259561946 94 106 118
-0.18120995086989788 28.78162621821777 52.37558962830206 39 31 31
25.824967040953315 23.565614371575176 36.23514369299852 183 185 164
21.401605550390013 35.076236793386705 34.93654171618993 230 209 181
15.946452201666583 42.7248637564766 53.23796891526479 254 251 245
-0.4095652332779482 38.516962072413186 43.26558726645978 100 81 68
7.842103451079487 49.1508094248913 52.69604628223488 44 34 25
23.096145017015083 22.776834158762576 40.112982857324056 103 88 70
20.965455679377964 32.34075810448887 37.717113628605844 210 194 174
1.9786537189895308 33.973635735553 54.04121151827979 81 67 56
2.127646557026753 33.13416649053641 49.95373587291829 130 118 107
3.2101492049815943 26.696353359130715 56.326836387084825 139 132 124
-0.25368575070047167 37.37532217348332 50.221029920999115 92 78 69
18.37887952300811 45.2982290504551 46.812635767869104 134 129 125
24.713507420642348 21.362637473741685 44.122822055925894 86 72 66
24.786644895442507 22.938139450193873 37.16625012228609 253 254 234
20.027579290946985 30.453875152503525 50.79976764609208 191 177 158
23.4407261669474 23.53381202185764 36.544224242585486 232 216 190
2.7119451117120423 31.26412190658165 51.72726603294555 194 179 161
18.384178342098604 43.447602999226696 53.588465194130286 234 221 202
3.404251947706469 34.34252514881289 51.0419805066505 68 60 57
4.943818726427603 25.838500160212888 56.64225029143254 253 250 227
10.1395318984645 48.334435902230695 55.36587489730834 54 43 42
7.615331952415669 24.11123983590429 54.837782167011696 253 250 216
22.40185098035486 27.37913841744318 43.76455132060751 107 95 86
18.28684423716791 33.846520242541104 34.246690990568474 52 45 40
11.931387963180246 55.13580037077865 43.82168088937697 69 68 66
21.654106305844916 35.30776492523051 35.07903226160106 253 244 227
23.9233950173574 42.873219852724404 44.25450978522375 115 108 102
23.468683874100428 24.935664756089963 37.20072215561887 138 124 111
20.713729831246187 26.177346295731613 36.68927804311724 28 20 18
25.351143682856417 36.74374084635743 52.49636669774062 110 102 92
-8.058167960293158 44.435684314108634 48.441851760112925 204 188 169
23.610596198691443 31.355359855095067 49.91482866609324 254 255 247
16.975001226506745 51.144310717443425 44.07114632887717 53 51 53
20.746372627130896 28.265016415908793 42.5023586020399 216 199 179
21.556655823677083 23.89225210479316 44.538025184090834 135 123 107
24.149065941544563 22.911431964302864 43.22040360218363 62 49 40
-1.966085250117387 31.526835468206855 49.513424712014924 80 71 72
14.912615192104719 47.16748465086393 50.62573872607598 59 52 46
7.088960993800033 53.83389110024383 50.67647566249594 27 18 13
14.238418171418235 43.947563283703744 56.02253018882712 87 80 73
5.7916120969769205 54.54139840289484 41.78235393947657 36 25 19
8.548755709588464 53.62944519036265 48.45278128001851 60 47 38
14.91246186500821 47.09029732610488 46.319143934550084 153 140 132
3.3691448475238217 50.70175214497942 42.52488128437381 38 36 36
-2.4736391689546253 40.657643164704055 46.202994972859926 53 43 34
22.849799068544776 31.683104962229457 36.46985738081766 148 136 126
13.96134474666994 53.77461403966571 36.66723753664192 41 26 15
7.077200035694266 48.413875577012675 51.51661731740149 109 89 71
11.013977480613322 51.49940154537133 48.66806951135087 43 53 46
14.136506730671243 46.722313932831995 51.08705030355625 67 57 56
23.543432575012503 29.83650680402836 30.387712969394304 55 70 57
20.61061732348041 46.062147110388906 42.55278849432869 136 125 118
13.884194426846587 44.4083781769244 56.024580728379384 147 139 137
6.2788066751018246 26.535013340542037 55.8859331460001 52 45 41
25.794704160282926 26.318387224932458 43.68880260543096 46 31 26
23.214140106922745 25.11275604069785 34.74513070520328 54 41 28
3.321914988225644 30.24660237645165 52.37523105997193 140 127 114
0.5220913618105294 39.536845128000515 44.385892672342806 132 115 95
4.518153491827879 28.49844962001674 54.119377710484684 191 179 165
23.19799912142769 43.871278315434765 46.364519911551255 80 65 53
18.36784349238794 32.71773829325836 35.549213046300764 187 175 162
16.961626105594036 46.6207002721193 56.47574220194495 110 92 80
18.43346397264492 44.55356041391144 47.279503757932574 53 42 38
9.924103897540363 53.683370905646115 47.46728902770175 35 31 38
22.773895224540986 43.652794745176195 46.88383851227882 155 152 150
16.65899427146197 31.60417325672724 53.24307156976534 110 107 100
19.92430915974495 49.273057786808856 41.86921532448466 29 25 26
22.97727989617323 24.22144070157136 35.87659932845766 39 31 29
21.29396012859743 35.91451577111881 50.737484650589906 255 250 239
21.96604098491176 28.627907751107756 37.05549317825326 83 77 77
11.561723198914551 46.75685803446753 55.172944916994055 69 60 53
21.654978993537778 35.45412868853931 34.35658207235829 136 121 106
13.166209034358893 47.916050992203324 48.11630000992916 103 91 82
1.87714745812277 39.27322083063319 43.112657364991385 139 127 114
16.662353422418303 43.29415978819748 55.6071544117786 253 254 252
15.392639905376747 47.57850583242837 47.06892882532737 134 125 117
-3.7155961862788938 34.31725059237056 48.35693849339321 81 72 66
19.838721569618066 38.21606570863444 31.348227641088638 70 62 60
-1.6076295215179373 37.937194129771086 43.358968620232694 134 124 114
13.815104729592736 51.32131164380268 46.57244168265961 58 42 49
20.556762356364825 28.088369726694804 42.09218131224887 130 114 103
16.040747251038013 31.268015639352463 54.60046505716758 66 56 47
11.799213794950985 48.30804455456775 48.347827650123016 133 124 117
8.207619675556593 24.02488023919667 54.51816932659461 251 243 214
7.287703864341794 45.911508290593716 53.74746387503315 35 31 27
20.46960914062617 28.186720097196684 43.037246824367244 142 129 113
19.280637458850872 35.99301654637247 32.917526858982455 52 42 35
10.24538340435454 53.79602301535496 46.872627892096816 100 82 62
2.1300614240236584 32.50925976847413 50.678456019637494 233 218 195
-3.0972730181926167 32.98553273199752 49.491328750771544 71 63 60
13.045634395536968 46.18253876386414 52.05269650713252 130 120 118
19.362233415244344 41.60277650135556 55.025804636642555 39 35 38
11.902465539955475 52.32516222636597 47.376681451393516 56 55 51
8.670241647260946 54.21848025310902 44.474467232176764 63 61 57
19.34503711525416 45.138980942193044 46.422737375367596 158 150 146
2.2038798751241946 32.134296637623194 51.64134734140574 147 132 124
7.11025867981576 27.248013347793858 56.3393572280925 246 232 203
15.593026729289768 47.80254447977893 33.97883791581739 113 99 88
14.264312865486046 29.800806815103552 53.847322441513285 75 81 82
20.092086478844557 36.88333689748348 32.08886934271907 62 53 47
23.567627106061174 27.38439346768745 34.03234858876701 24 21 20
8.734330846972819 55.71458735320464 45.58707527470516 21 16 13
21.494610499779697 35.31790707920338 34.656434914339634 254 241 216
16.922185223482188 53.68525265018207 41.25404906573839 53 34 27
1.3744745201181092 39.44561867132272 44.40469290029371 63 49 36
9.508847185350918 20.51166747058437 51.101383605350605 182 167 147
24.018164977576458 22.426459344900355 38.36455129468146 96 83 71
20.449427025183564 32.3513866920392 40.473006901118104 242 218 193
-1.5905509866501693 29.459664501356258 52.05271836899795 59 45 35
17.37661972225905 35.25629485295021 32.36858558406756 97 70 49
21.430059359577097 46.02249370451633 42.58266539113977 80 62 52
17.01244959001446 43.687665414907165 49.65657022090144 76 60 53
1.9831254822724345 28.444148211545542 55.83071911420705 96 85 73
3.0812164966820124 26.308892085410925 56.60962310558351 65 53 38
11.501685267989645 53.386310625259476 46.191647838695914 32 33 26
21.79635700193577 25.950056914695466 44.28152487663091 107 93 80
21.61071810041517 26.245616309514535 37.30971081786235 126 107 83
23.126101467961547 25.333244466618194 34.263673669159694 48 37 31
21.98883363684522 25.13985301907338 38.132275245723186 93 80 70
22.555689320674304 26.01351962154538 37.0243647047972 254 244 217
16.296883400495755 50.66766726254183 35.84026316769206 47 33 24
13.051137083466136 43.28783711639382 58.54133093064204 122 114 112
21.253647659184754 45.94460352783754 42.7056599930319 60 42 33
1.2833341304988426 26.394310603820948 54.83790123112081 24 20 19
16.753125658099435 52.932212807182424 42.217047574155515 114 101 78
-1.745274057965189 29.346892534226996 52.52525133764007 126 118 103
-0.1865089534268787 43.62506773765229 42.768791851387725 193 179 161
-1.6099075423276235 40.19268339608645 48.720627176678896 90 79 72
0.9016134857327682 27.089292241613787 54.620063556280314 35 30 26
3.195888101290564 51.41193327833782 44.49225271415063 50 28 21
23.092262054750552 25.11403341417855 36.3997843541732 135 120 100
19.242174015963652 33.911272199650426 38.16930967418004 134 117 102
15.747411779597257 40.87818518806836 33.56548122091367 66 60 60
3.5081565276458972 26.674060184120936 56.66945113674758 99 86 69
23.09122370446773 26.37722823820012 46.20440921272958 254 252 237
